62.8319420892 20.6662084801 -6.4678502836
61.5779427620 20.9873448253 -5.2705717374
61.5509962178 22.3034571636 -5.2812163764
61.2218543138 21.8902550097 -4.8171756908
68.3201458995 15.2962632624 1.4907380302
68.7805402930 15.9309979227 0.9470004381
68.6209451257 14.9544340167 2.6466789763
68.3823124207 14.5973492653 3.0137681746
66.4687482410 13.3816202205 1.9399663265
66.1466359358 13.5035305302 1.2426498794
67.0514661905 13.0547443138 3.5419882546
67.9808418937 13.9890797017 3.4763690880
67.7062871171 9.0124103867 11.7626718944
67.1892574867 9.8711352147 9.1202798747
67.7525464477 10.8701263826 8.8215766582
67.7057094690 10.2289251336 9.8335875694
67.5524625782 10.3146635863 9.3232697021
68.4050580489 10.7363451952 10.5151868275
68.3106105513 10.1134943304 11.4322264085
68.6212756217 9.8929346003 12.5716718293
68.5022511576 9.1018412564 13.6358673523
69.3599913862 8.8513404082 16.1210101503
69.4255225180 8.3342998680 17.1105366076
68.4894206037 8.0527510053 15.2140304203
68.4229318153 8.4861092131 14.3619150966
68.1658140821 8.1930748385 14.1529296768
69.3448591382 9.2537351214 15.3698552958
69.0344978814 9.6870873855 13.9064708220
66.9976504633 11.7357289019 5.6679798837
66.5265406645 11.1433221669 5.6184192669
66.8889085047 12.0909136448 4.8565350530
66.3849076430 12.6949149986 2.8856884749
64.4529182113 10.6043073925 1.7587894994
64.6645442282 10.3330050538 2.4973884889
64.3425379160 9.4754118989 2.4425963218
64.8982351935 9.4464014705 3.8741772176
67.1812937674 20.7286975957 -7.7703822741
67.1877540131 20.0101001415 -6.9694090392
66.0833191365 19.4013776776 -6.6323879943
66.2792677693 20.2731952029 -7.4382377173
69.6396417460 22.5658425094 -8.8824551060
70.6853310102 22.1625911807 -7.7606837492
70.6442943519 21.3408021690 -6.5413302725
70.3556386088 21.6750365914 -7.2730747579
71.9429896219 17.5436437599 2.1242309167
71.8074551487 17.1821614595 2.7284988284
70.1796625906 17.6231014943 -0.5033570127
70.9570584925 17.7585588761 0.2584774688
69.7623675441 17.6529544233 -1.0725271682
68.5173469326 17.4634075511 -2.2400933496
68.3620060410 17.5928077642 -2.6210273842
67.5717015709 19.2914417357 -5.8205016031
68.1115966025 18.4640903327 -4.2607793311
68.0803293524 18.9689305984 -5.0754751221
68.1215274018 19.0053116099 -5.1023810662
67.2943120696 18.5757817235 -5.0749717742
67.8449322766 18.4687941623 -4.5092442087
68.2286944212 28.0086541732 -11.8455277813
64.7143477053 25.9570318278 -9.1819091103
66.3987375074 26.3846472553 -10.6785297649
65.7122210083 26.8364295320 -10.0848805904
68.3458594207 30.1207792455 -11.3288261719
69.0590644595 30.4258958389 -11.7113700205
69.3923082887 29.5078238324 -12.2201978638
68.3925268917 29.0514270431 -11.7678312760
52.2548962229 9.3818226313 -7.7771917973
52.0962372138 10.6018863461 -5.4287592617
52.7556905518 10.4660286922 -6.1706344267
53.2790244931 10.5607735770 -6.3984931747
53.9824910588 9.7735864471 -8.0969250339
53.3139917474 9.6546792591 -7.9082689597
49.9462067515 12.2004926801 -0.1692413566
49.3790622221 12.5135731185 1.1025358094
49.0807638947 13.8294034759 4.4243979090
49.9149946685 13.6558560491 3.1108625870
48.2106678449 13.4300677771 4.3689137190
48.0630247912 13.9926577785 5.8559354090
48.4128475981 12.9444545624 3.0129007341
48.6812879123 12.4942690761 1.7061157641
46.8712226202 14.5310657742 8.2735649218
46.3339560633 14.8557527831 9.5367630071
59.5096162783 20.6299296835 -2.4430961620
58.9153601478 20.6888088064 -1.5168559424
58.4707942397 20.7643270932 -0.7160728299
49.2075756966 18.8441198558 15.0325880845
57.8858893700 24.5513751148 1.7020003543
57.1653296358 24.4116043507 3.2398862915
56.3054690193 25.9967164604 5.5546826963
56.7673833786 25.2406148885 4.3451343024
55.1942737678 25.5594981199 8.0824751705
55.5250036301 25.5849033889 7.3019052918
55.2045157367 24.7325195740 7.8675220439
55.4806273768 24.4494830551 7.1239374881
56.9184743116 24.2360195671 3.7430696386
56.7716199479 24.1553773905 4.0573395890
55.4343205659 21.9002108386 6.0704111500
54.1932429014 21.2894161299 8.3699175562
54.8681085684 21.6324477583 7.1293982890
55.7339930645 11.9267098010 -5.6760807967
55.5028524174 11.0039387423 -6.8444552658
55.4025728590 12.7123242943 -4.3181776414
56.1617762916 11.0745124990 -6.9391516618
56.8890464583 12.1830789059 -5.7960595462
57.1076744101 12.5202797417 -5.4690427778
57.7033201863 13.1863149039 -5.0015481681
56.1601860657 13.9849715623 -3.2104335522
55.5789827272 14.5593624510 -1.8619270339
55.1939959026 14.2565887644 -1.9157332367
55.0564872346 13.8323670371 -2.4213749790
56.0716898493 14.8183929090 -2.0908495492
56.8265673438 14.6086308400 -3.0694027963
55.1340955898 17.8338931459 2.9597117799
55.5210572968 18.5409036772 3.0988416618
55.5424640258 18.0631385037 2.5328754546
56.2455187884 18.5501316364 1.7662827264
56.3796089975 17.5204148030 0.6173126223
56.9035414934 17.5784482210 -0.1592624494
49.2443075025 5.5358582420 -11.4335813090
49.2388907429 6.5334870833 -10.2078515595
49.9766418501 6.6131685061 -10.6413234365
50.9242865368 6.6346302447 -11.2402852154
51.6630027973 7.5282879975 -10.3935055510
50.4958087075 10.5462580715 -4.1794370449
50.7433304342 10.0858691752 -5.3300641623
49.2415573407 11.7820902891 -0.4176457852
49.4045378401 11.0111051611 -2.2779483209
49.5832090845 10.9000870546 -2.6729248928
49.7672915858 10.7606534402 -3.1313011038
49.2016462363 9.8016315439 -4.6202742762
50.4998158304 11.2551599948 -2.7516036817
50.2604443745 11.8321671943 -1.2895868767
51.3921781048 11.2317200969 -3.5945458341
51.9290221326 11.5251583675 -3.5053285232
38.6638816577 17.9720605779 21.0870865092
38.7003683519 17.3781402887 19.6262452984
38.8892057885 16.6391162701 17.7643201067
38.4940842498 16.2005308431 16.7591393164
37.1379859284 17.7089285695 20.5371915077
37.6962210481 17.0395356574 18.9157258048
37.6164330709 16.4919751122 17.6034939461
34.1975915195 17.6608160693 19.9692504271
34.8343890241 17.7114289691 20.2581315696
32.3980498253 16.0545067410 16.5668910061
35.9314797498 13.4286055966 11.5133858081
35.0192421163 13.2323538239 11.6058292758
35.2053659893 14.9323742845 14.6033420181
35.3653453429 14.1601819860 13.1107632172
34.0981417199 13.8191137143 12.9451560072
32.0925027364 4.6928405300 10.4176497354
32.7420988191 4.1556821925 9.3044744309
34.8171900131 4.8850162132 5.0078035392
33.9721032690 5.1226868055 6.5741222532
33.8199327918 5.1444072204 6.8545260889
33.9578110106 4.3989074649 6.7597471710
30.0317921021 4.2972197352 14.8339576414
30.3449018494 4.0070393901 14.3699699017
31.8113425682 4.6196727564 11.0106318367
31.3071177685 4.4150651004 12.1374469507
35.9128054610 10.6368699279 7.0461762984
35.1935480810 9.8731676794 6.8581399668
36.4053620572 12.0007174954 8.6985605801
36.1863848515 12.3358070707 9.4513943781
36.5882839877 11.7269860720 8.1108275134
35.4376690292 11.9598688447 9.3216497320
35.5695941954 11.0987374079 7.9822924991
35.3799602070 12.2449192373 9.7926438892
29.7449871790 11.4850769475 12.9145369649
33.1580555237 8.3257876576 8.3477280068
32.1944650899 8.6261531452 9.8323943066
32.5266122975 8.3072135534 9.2966153232
32.9350605561 9.8745296648 9.3927241366
33.4308632895 9.2137530027 8.4281933156
37.9588250064 4.1832928813 -0.4532298140
37.3738294870 4.5983638144 0.5258466531
37.3324136206 5.8917410710 0.9452116680
38.4184857976 8.0003384835 1.1210469022
38.5799467317 10.2164844137 4.0410318390
38.2203745019 10.4287032875 4.7021973907
38.5078936178 9.5648966669 3.0591614180
43.9595416949 6.7940690295 -5.6527644822
43.0979081837 6.3591776899 -5.4079787860
43.3164570501 7.3030686851 -4.4218861081
44.0986503549 6.6953434680 -5.8847938528
44.2896581673 7.4095749736 -5.0791501375
44.2666428608 7.9445505931 -4.2677343975
45.7570693595 7.8329980879 -5.5733636642
47.0760723274 2.0270480300 -11.6348526031
48.7190730857 4.7860326764 -11.7852450246
48.7096088624 3.0802963629 -12.8846368652
47.4138859525 3.4694203590 -11.5680959588
47.7167243436 4.3162913721 -11.3513078198
45.1874964814 6.8254172546 -6.6316042777
45.1536017110 6.5541709937 -6.9412589753
46.9430240130 6.6286979449 -8.2931744609
46.8663266352 5.8195226204 -9.2491467938
45.7652228925 5.5650653111 -8.5739417952
44.8301757254 4.0234430097 -8.9357406210
44.6472927545 5.7486393722 -7.4358254255
44.2444217998 5.2793319113 -7.5079557720
43.1232387906 5.8355547768 -5.9725848082
50.3485082646 5.8231239428 -11.8895828841
49.9576473682 4.6372576721 -12.8290421499
49.9586259935 3.4651600972 -13.6387640752
50.7802907693 4.0847755990 -13.7973723301
50.2519813898 3.8819368542 -13.6025910493
53.3127780348 1.0704699554 -15.5125598856
51.6244592594 3.0517763213 -14.8077542571
51.8976026864 2.5068821539 -15.0956684783
31.0647096228 25.9621009644 31.0872133033
31.7415995910 25.4333633872 31.3946515825
30.0569517563 26.0522090603 29.9374968392
30.8368513942 26.5343178997 34.2330383332
30.5967794042 26.8091546762 35.9597045139
30.0159264678 26.2201352650 31.2678637250
30.8591170709 26.9780483606 37.3050290693
29.2603297540 26.9804581299 37.3242241138
29.9796822475 26.6298967352 34.5318233550
29.9989182745 26.7772876386 35.7058672648
29.1168870497 26.3227803407 31.1394975963
29.6025824929 26.3486261353 32.2089867289
29.3783522748 26.5502348312 33.7767120871
30.2345057221 25.9913738495 29.8629829259
30.6321695214 25.3497603841 29.7322627007
32.3114783348 22.1255867560 27.1898974226
32.8121313745 22.4067517896 28.1978121018
32.2585884873 23.5578067952 29.4869232642
31.7545484641 22.3778482254 26.9861275859
31.5430515501 22.6616676531 27.1946047568
16.1835017153 27.3974962821 2.3741577404
16.8696729315 27.5287978198 3.9110481423
17.3967704951 27.5796489490 5.0908485815
17.1054742585 26.9235812844 3.9009013481
17.1309951011 26.0286538921 3.2706585674
16.1311710799 26.5004995336 1.6611085900
16.5664120351 26.4689328514 2.5162831835
21.7252235437 25.9405010523 12.7209092892
21.6082002630 25.3377461326 11.8169373724
21.9901202236 26.3755458511 13.7640812363
21.4436322717 26.7320005842 12.9590117426
22.0400651258 28.5859808181 16.1212518019
21.9262474003 28.3753583370 15.6804838764
21.3326975488 28.2482879995 14.2700896235
21.6257504446 27.4230524685 14.0753586591
21.7030245647 27.9787667297 14.8169487754
22.7074951420 27.9704404481 16.9931921425
22.3100411823 27.1426811206 15.2852846645
21.4320303093 24.5673064538 10.6461151585
21.5458665977 24.6192628089 10.9405772893
19.0583157202 23.9347678086 5.4273576518
22.7359945237 20.3360938500 9.8052308721
22.2285112054 20.3360603232 8.9814067019
21.4447717528 21.1121687495 8.0191841073
29.0134731356 25.1542962658 26.8709674644
29.8816268612 25.4268565978 28.6531777006
27.5273773105 26.4985070880 31.7217538312
27.4081036019 26.7303654470 34.3839467264
27.5080841355 26.6398183472 33.3442867949
27.5222596980 26.6885214297 33.9034945830
27.0972206883 26.1012103030 25.5998358460
27.1261456530 26.5967722489 32.3107230432
27.1152522797 26.2980067101 28.2775868238
27.1669701390 26.1262018721 26.0711913349
27.0922555705 26.0998847120 25.5723712763
28.2151280288 26.2564035493 28.9419259947
28.3843948639 26.7564413061 34.6833492020
28.2218889558 26.5992361832 32.8783232240
28.1142143082 26.8293223760 35.5201681431
28.9002644218 26.1021287887 28.6297050626
28.9694372303 26.0991327725 28.7272445558
28.7272773042 26.2430884603 29.6742407825
28.9235187088 26.2336652563 29.9420416211
28.9852025453 25.8491179518 27.6245958140
28.1445664516 25.3631839538 25.5241490220
23.0488449712 25.1743120171 14.7428192610
22.2022238737 25.9819046716 13.8009334705
22.3794597976 25.1064936309 13.2253246484
26.0894067898 39.1965415555 16.0940770427
26.5271184012 39.7828746329 14.7017505358
24.3843909964 42.7994633527 11.5364845478
24.3369238342 42.2706318839 12.3652608922
20.8291660187 35.6190111238 17.2942929054
22.6262740415 30.9087186992 19.0339838397
22.6279270910 30.4739820498 18.7696212036
26.5208395119 33.3313423194 27.1431787175
26.4354921492 33.2520737298 27.0378354613
26.7859389061 33.7382989914 25.4527494217
26.5302603833 33.1395044836 29.6726415790
26.7197210324 33.5540765235 26.9114454369
26.8349529978 33.5920974972 27.9198294818
26.3405143163 33.8192605011 24.3523948182
26.0801946626 30.1865171932 26.0457205220
26.1757378836 30.3491154000 27.2604708792
26.4223160318 30.3548121989 30.3339792515
26.3596326792 30.1758732943 29.5262739022
26.6410083521 30.5695274332 33.0597709934
26.4376324174 30.9368404426 30.5556881173
26.3963680934 30.7876130931 30.0476177436
26.9864059315 30.3520628177 37.3125070184
26.8482244372 30.1696545281 35.6111360358
24.0742070089 29.5069157652 21.0908446302
23.4862506311 29.3557779014 19.7782231733
23.2077571080 29.5115579621 19.3272175482
23.2129023250 30.0761713155 19.7341388618
23.8876897398 30.8812651996 21.4125982359
27.2178161218 35.2035842247 23.4921799507
26.1825852932 35.7568629598 22.0294704640
26.5353037501 35.9356079172 21.9765142760
26.8389687520 34.3497483175 24.3181980634
27.5938561473 34.7067867445 24.5827495633
31.1146699208 28.7779927659 37.4798851013
31.4077062848 29.8362114333 37.4798851013
32.7209157929 28.5904684873 37.4798851013
33.7170312487 27.6436462422 36.1573114667
33.9701596982 27.0056569694 35.4370036181
33.7851907673 28.1297099279 36.2546824353
33.0061166584 28.5453840287 37.4711460246
35.4328738298 48.2017082845 -17.3468239734
35.8131363607 48.6462763407 -18.4835125554
36.2025818826 47.9354251403 -16.2746332410
36.0797936420 47.0804591388 -13.6627968866
36.4033916887 48.6657165707 -18.2248771711
36.5312060610 48.4009645683 -17.3950144210
36.0976212284 48.0935885622 -16.8112208120
35.5889034054 50.2172783181 -22.4316734914
35.7866936229 50.7942080916 -23.5736776913
35.3433828416 49.4423902960 -20.6821734273
35.5106863079 49.7908361763 -21.4894274348
33.4391387653 48.0600789158 -16.6805923258
33.3939128846 48.5484655789 -17.9764145075
32.1626682671 48.2968687509 -16.1893430149
32.3030261678 48.8270037850 -17.6900733553
32.0908382772 50.2596517607 -20.6233798512
32.6621243668 50.5964975997 -21.9643813317
34.4931535562 51.2512704605 -24.4574709466
40.5400968120 45.0714764393 -2.6114608110
40.2747658749 45.1431338519 -3.1147401692
40.2019808649 45.6974211613 -5.0798076555
41.5574806967 45.8460866040 -4.1161897591
41.0002737142 45.7604647056 -4.4200907597
41.5233078507 45.0462568508 -1.5712976222
40.9721607223 46.1136808202 -5.6004027931
40.7837799533 46.1147262958 -5.8274608830
41.9325230917 46.8403064878 -6.7089975535
41.0151920149 46.0160617914 -5.2417768406
41.4710576740 46.9104058944 -7.4808098771
42.7057765144 44.6661436094 0.6976689709
42.4584243729 44.5890779462 0.7483764611
42.3383795707 43.8878007498 2.8479610924
42.1678036226 43.4461607605 4.1789387274
42.1833315979 43.7559152946 3.1666846443
41.9523941739 43.5010762199 3.8913798442
41.7063545561 43.9246984665 2.3100936048
41.8703774946 44.7237302647 -0.1940738225
41.1888573162 44.4773516271 0.0170671805
41.3634686343 44.2837505161 0.8136362746
38.1499324292 36.8963135049 24.6881437056
38.7302436840 36.2070218940 26.6661480270
38.7548418192 35.7191341713 27.9361123769
38.3525288486 35.2648621158 29.0944345306
37.0215520774 36.5292536171 25.5441379461
37.3847698154 36.7588702142 24.9344524140
37.6658003945 35.5235767556 28.4330923210
37.4075632338 35.8203862365 27.6268494806
37.2621068262 41.8879429258 6.5892754631
37.2283733017 41.4112704637 8.4318091620
37.3909274013 41.1570250076 9.5203858132
38.5752038539 41.0640955638 10.5414175840
38.5355761626 41.9757039589 7.0663197925
38.3363392097 41.8797840326 7.3056599637
38.0644663967 40.1254501492 13.7812202342
38.8649791537 40.2258310704 13.7494267626
38.6549603514 40.3877252119 13.0485515584
37.1190685344 40.6212258757 11.4413931894
37.5460063475 40.3749391264 12.6068204782
35.5055610401 42.9867719166 1.2813332777
35.9105191761 42.9502951764 1.5994364904
35.6701114495 42.1063883572 4.8670883794
39.4017803345 43.7169223851 1.1661452277
39.1423757981 43.3227458153 2.4154470792
39.7680727492 43.7305130912 1.4367640495
39.2393139411 42.7892648520 4.4485404246
39.5711236745 42.8037831719 4.6479534084
39.3342395722 42.2786333703 6.4308008296
38.8619228357 42.8515252947 3.9712581018
38.6039530196 42.4263376139 5.4080933587
38.2275618356 42.5355404609 4.7167068515
38.9197493285 43.7436139936 0.6383492796
38.5492729133 43.4469043876 1.4334105154
38.9076895879 43.0707068472 3.1577060816
31.2616076766 35.4886346334 25.6904578901
31.5531687273 35.4169711571 26.0363977206
32.6705061735 39.6345231714 13.5375314089
32.6964604878 39.7598130698 13.0960525522
32.1693368193 39.5200645973 13.8875412314
36.7161998415 38.9519715247 17.4938877238
36.1257279442 38.0249520015 20.5148679066
35.8024801821 38.1968769447 19.7804906044
35.6515459978 38.0571353548 20.2121202471
35.4165569207 38.9699629483 16.8875651987
35.6548040593 39.6344346374 14.5115390301
35.1465343537 39.4153359216 15.1143013547
35.3151308664 39.4133737534 15.1938480705
36.1693240619 39.1916459631 16.3812542921
36.4182562210 39.9444066880 13.6919430386
28.5606683175 41.4094637629 9.0637305000
28.0560489314 41.8893279044 8.1447262341
28.9519863358 41.1377921655 9.4752315176
27.8468243868 41.6583949244 8.9579307302
27.0281075725 41.5603055471 10.1375656222
27.6087524761 42.1204350035 8.0770374345
27.7918829127 42.4519135134 6.9784763547
28.5488956802 42.5392386899 5.6676316096
28.7039926525 42.8878536445 4.5029088935
28.5907882874 42.9711168291 4.4315360786
26.3930796893 46.9434534907 -0.0943791385
26.5558730268 46.1389787507 0.9343498520
26.1057540188 45.5947388039 3.1048845307
26.9483563253 45.3113628635 1.5768904447
29.7119346000 45.8006090553 -5.5367182223
29.0060889626 45.1435040107 -2.4156896181
29.9949978975 45.8932654455 -6.3023763076
42.5196125603 39.3615959114 17.0216427511
42.5464648433 39.8508272105 15.5847261652
42.0440296933 40.8816509695 12.4468376106
42.6224987042 40.7403569691 12.8834711687
42.9856739157 40.2718718532 14.2796481356
44.2316581592 41.3585112440 11.0014346869
44.9023932192 41.4134291866 10.6843167156
43.1670654085 40.7879846339 12.7490730859
43.4449775639 40.0119424687 14.9009285597
44.3892169227 40.2653441506 13.8332031091
44.7676802489 40.2373330747 13.7174541660
43.0914405513 42.9949552576 6.0777733646
43.4796388097 42.0283034122 9.0837978587
43.3775862232 41.5073615210 10.5676788238
43.8538567841 41.6845218450 10.0892765403
42.4740413624 42.1661761636 8.4341065566
42.2062744277 42.0609088493 8.7084368248
42.6283506294 42.4733842883 7.4865319603
42.9420986771 41.4818680075 10.6847828785
42.0682164634 41.6344534774 10.0519771019
40.0532798846 36.6582083348 25.2708808807
40.5728433346 36.6119168960 25.2127306649
39.9917927043 36.2932696239 26.2658251798
39.4989934938 36.5498031214 25.6717119596
39.4729209095 33.8738267076 31.9205612431
39.9336240783 33.2031028513 32.9233419700
35.8911412367 32.1019924357 34.9420487501
35.7112439663 33.6561930584 32.2781814660
35.4836622154 33.5226933216 32.4427244108
34.8057163736 32.2912310806 34.1867564206
34.1805857460 33.4777112985 31.9054648159
34.4992987659 33.7193051858 31.6241127038
33.6898498794 34.2591390849 30.0683145245
34.3255597346 34.6353388653 29.5612931397
34.6259872681 34.3937135087 30.2602260722
33.7626582647 33.8440640867 31.8185366132
33.0835281175 33.9571474820 30.5667294264
33.3324674982 33.5955628133 33.3554423747
33.3398403914 33.2734657205 35.3448015328
33.5552457931 33.0192045975 34.7878437276
31.0893758474 31.3321639813 37.4798851013
32.2783522096 32.2961589634 37.4798851013
33.3117108418 29.7686882765 36.9635545655
35.9752442024 28.8362902263 37.1794055092
34.1733803560 28.0404685223 36.0224275279
34.7995338260 29.3975370062 36.5006793612
35.7689551377 29.9938546871 36.8186820086
35.5719254817 35.8752798850 26.9738092328
35.0218132919 35.4274244233 27.9466713574
36.2440525666 35.9729379614 26.9518797288
36.3955162791 35.1046065119 29.2822565165
36.3089920102 34.9032883901 29.7521297599
36.4224458320 34.2450441236 31.2755573184
35.4629159416 34.5332117885 30.3143641136
55.9837782067 40.8719280753 3.5290333955
55.6912984585 39.7056095876 4.2967736834
63.6029509609 35.2228967369 -2.3616257241
63.4299022169 35.5997694271 -1.8423711006
61.1201739761 35.0552676556 -0.3393167287
60.5355123958 35.6599079014 0.5702816943
61.2242579574 36.4796903435 0.4931261742
60.3615950676 36.6016266728 1.1172519267
55.9152342180 32.7529232433 6.1023453819
54.6066914834 32.9280538086 8.4705859399
54.8441496258 32.2419345914 8.2312843458
54.2718183140 33.4650063758 8.8612467302
55.3686548168 33.4336423465 6.9523370872
55.9863359748 33.8539784199 5.7839676605
57.1671123181 34.9548247373 3.9499557834
58.1702863458 34.0417145118 2.5839053182
58.8604732258 33.4953675701 1.5328420183
59.7549140360 37.9840014769 2.0981449150
59.3066075390 38.6197579586 2.4393705911
58.7234275401 36.4026116758 2.3641961118
59.4599733719 36.6306900456 1.8718512263
58.5439708318 35.3141621348 2.3750142458
59.7924572389 35.6800375773 1.1981611794
57.8880938252 36.5099416672 3.1792158550
56.2210019541 35.9985000332 5.0433258348
57.9576841917 35.0647203576 2.9648350100
55.0448692838 38.8662747413 5.2534945317
55.8117889851 38.8019950242 4.6200459690
48.6224368041 20.3131414835 18.5228878592
48.5935515553 20.8411138714 19.3843614224
48.9374828625 18.0378021448 13.9247388091
48.4436817203 18.6319595377 15.8050046165
48.5927575224 19.7891503267 17.6714262061
48.9703432967 19.4817688124 16.5511515131
40.2751426164 25.0813610922 34.7175351396
40.3633473263 24.1974852507 33.5489957819
41.2755197174 24.4173558596 33.3528588581
41.6664524386 24.7469250671 33.4794575877
41.1035124057 23.6681065887 32.4345047811
42.5998026092 23.3923801789 30.9896651895
42.5954052154 24.2917455232 32.1598363508
42.3123380811 24.6999362377 32.8862756032
41.6209986200 26.9982748354 35.3117856998
41.4928844756 25.0118884735 33.9158685124
43.3109744266 21.3814299949 27.0003966210
43.5653285818 22.1609590132 28.2067855477
43.3236345201 22.7262616016 29.3527507954
44.3364372396 27.1354757053 32.0948805813
43.3123018189 31.6401058725 31.7701493877
43.4926657354 31.6599674407 31.4976292909
43.5871589847 30.0708172246 32.6804997037
62.5591297655 24.7716307212 -6.6090037409
59.8919303822 26.2176864170 -1.9933175784
59.3871137015 26.0460108370 -1.0486426719
59.2643993954 25.2135457022 -0.9789805847
59.5339471755 27.6703147451 -1.0007054283
59.4069265355 27.4968979779 -0.7985472341
60.2032875875 26.4237415777 -2.5204257570
60.7067469100 26.2281340573 -3.4646358748
56.0922795816 33.3332708588 5.6979458106
57.2633280003 33.3260339038 3.8557420566
58.5670572646 30.9476146477 1.4482419383
58.4460223372 30.1965558586 1.5278339711
56.3058350989 29.6799732277 5.7097162453
57.3388277770 29.9354767140 3.6015440137
57.5822901712 29.3226866452 3.0658564649
57.8022676700 30.5196468203 2.7679538331
57.2413809444 30.5039032424 3.8266249021
56.8478834930 30.4291163185 4.5629837670
52.2558414489 30.8060935813 14.3471590440
52.6811848491 30.2458196150 13.6167257661
51.8496077467 30.5604541808 15.3862747361
51.2176928603 30.1591931599 17.0648347434
51.2514005346 29.2657841141 17.3743607070
51.4191211831 29.2944665122 16.9612838314
52.3019688044 29.9294476249 14.6219250429
52.2313344539 29.7399085192 14.8470590831
47.6611611143 33.1650720458 22.5613189510
58.1123241066 26.5096367493 1.6223340113
58.8330849962 26.5205905400 0.1373379915
57.5614458570 26.9346343470 2.8783746234
57.8744978989 26.7867926677 2.1775997321
47.3662831382 27.5874164938 26.6739418376
50.9120274472 28.9650203375 18.2966201480
50.6752665751 28.0168241608 19.1237393734
50.5569406350 27.4564258182 19.4742313353
50.8251507106 27.0719454560 18.8747703148
51.8161623168 24.9214194470 16.1575174265
51.9323580485 24.9100938167 15.8746748460
51.3713083550 23.8706127779 16.7459320739
51.1706565752 23.0406465114 16.6667871048
51.7726622621 21.6300438619 14.0762803909
51.1297111450 21.7239841772 15.5711502553
50.8033497277 21.8437753249 16.3735220223
50.9937157970 21.8790738736 16.0267721301
51.8455882439 22.7622130521 14.8952955587
51.1666914890 22.1947465856 15.9380296691
47.7641241548 18.4900048342 16.4605828284
47.1975645376 18.0412027530 16.2360990103
46.9541111297 21.1647617672 22.5092658454
45.7890993913 20.0212548171 21.9912790015
45.2105989191 20.5720255008 23.6688262073
44.6464721107 20.2640429276 23.6653668524
44.7142221759 20.4583985046 23.9822115785
44.5997911899 19.9765602836 23.1216426018
44.7095965446 19.2453141119 21.4426418271
44.0565110320 18.4560015072 20.1842740084
43.2012158962 13.8936706725 9.1852920322
43.9262562319 13.1586787422 6.9431041325
44.7050293211 13.4459784614 7.1841074804
44.4700721560 13.1755688860 6.6520761424
41.8226767161 9.6977301425 0.5946194503
41.2769720537 9.4265226501 0.5129332024
41.0965212812 10.5299138156 2.6977777594
41.7427606959 10.3847369959 1.9785882489
40.6866929633 10.6302916673 3.1621754252
40.3242679127 9.2321146678 0.9678298342
40.2303291857 9.3205910803 1.1925784430
39.7162829605 22.8675794853 31.6970733890
39.9241070476 23.1334263488 32.1075671241
39.5676512969 23.8008457513 33.2525209734
35.2058445120 24.5862515028 33.6655026205
36.7239938140 24.7614426617 34.5980051114
38.5811159930 23.8381090347 33.4786455430
38.7339725561 23.2408856378 32.4984770036
38.8672789142 24.1638125214 33.9489270867
37.2498814997 24.4370076202 34.2751928699
37.8216478951 23.6463787441 33.1600967790
37.7062807595 23.9672110388 33.6742381346
38.8534552326 19.5182658600 24.7890430742
38.5561242958 20.1087746850 26.1753103203
38.6312170916 20.7128736988 27.5225148271
38.8991423403 22.3392807074 30.8613165678
38.2448083402 22.9336238083 31.9893737963
38.9117175222 21.4025501605 28.9909375603
26.9096431954 13.5362814297 13.5686372390
27.4205549367 18.5554011426 15.8648366415
27.9550855743 18.6782299328 16.6443683768
28.7901986342 18.8945983191 17.9007819557
22.0619568734 16.2664993262 9.3464573254
26.9379411556 16.9491699007 14.1003762634
24.0167273939 12.4407726519 13.9730149070
23.2768064104 13.3720730021 12.7615961664
23.8857602522 12.1868130346 14.2550959130
21.9836728747 12.5114570043 13.6144784907
21.4149444516 12.9720736181 12.7635439003
22.3706622157 12.8772685029 13.1300582379
28.5223376790 15.4347751902 14.4186101299
27.0926796158 15.7937969121 13.7712925366
27.2483169281 16.3876353204 14.1004483120
26.9257329576 10.5525908021 14.9709459132
27.8289176755 7.4326080683 16.4295337542
28.3261207705 7.3587752532 15.7389621532
28.9116039133 7.3188280314 14.9132530395
26.2187814364 8.9487616177 16.8723471273
26.3160257660 9.8230911692 15.9605665004
25.2026250589 9.3531385346 17.2373441784
25.8570449130 8.3768219378 17.8572228461
75.2483473850 12.2136895307 19.1996905481
75.8636401076 12.6325169906 19.0035884115
75.9737472390 11.8593909000 20.7248244572
75.3236728781 11.4817198028 20.8137600625
76.1355489799 11.9250225643 20.7335847693
76.2657171384 11.0702195441 22.4726863167
76.2288604462 12.5262331314 19.6229858899
76.3559849923 12.0923744245 20.6188510145
81.0207828077 6.2255914622 25.7117617838
70.0611231205 13.2160661745 8.7983580191
70.5615746864 13.0980846466 9.9715683499
71.7540230457 10.6034481524 17.6615463665
71.1785260883 10.3331148914 17.1777468435
70.9768404062 10.0105695428 17.4730231702
70.5243016014 10.5908050200 15.3518674379
71.5994707140 11.5151338924 15.4098533716
71.1242408875 11.3510230569 14.9217162741
72.4086449730 11.5011507013 16.8223993646
72.7358836098 11.3405417000 17.7071478135
72.8811845665 12.0970974138 16.2637210963
72.5286461582 12.9218566242 13.7841741429
72.0853626546 12.9513948006 12.9935554283
71.4128388743 12.7823154890 12.2226364713
71.0707591017 12.2886254024 12.7444044858
74.2125812133 16.7303682265 7.3865607414
74.8058741931 16.3286436015 9.2130986030
74.2706989430 13.5660593145 14.9247585159
74.3071442174 13.0270773334 16.2184665658
75.9660381858 13.3474438116 17.6025368345
75.0093756992 13.1954804230 16.7796569392
75.7391580191 14.1165731034 15.6266051597
75.2065875159 14.4125061627 14.2611858590
82.8595944721 13.3761421170 22.4662437240
82.5643512434 12.3286443114 23.5194335958
83.3338250726 12.3325987026 23.6626715305
83.7807083434 13.6636855157 22.5486236039
89.8396127529 11.2781999729 25.4633958115
88.1254575214 11.3400089784 24.9994810784
88.4199851992 12.1785111166 25.0151151745
79.3249478018 11.8210155738 23.0784763936
81.7961684385 10.2924755961 24.9997352719
75.3512021363 2.3222269813 27.8051915984
75.9886170627 1.6874864149 26.9020730665
74.4623212271 1.5633722006 27.3130854688
74.5659792134 2.5709381916 28.0219856556
72.6701890743 3.8218769605 27.3622152775
71.5076286238 5.9633555983 24.5921462720
71.4681413293 4.6135282229 25.4708025356
71.8786358054 4.7995302491 26.0630657923
72.5045283802 4.8326649208 26.8584705252
75.9922719389 3.6378069453 28.4095865402
35.4671619392 108.5345051605 7.5195486777
36.6164107368 108.3487815602 5.5389600072
36.8789871343 108.6373959415 4.7344564592
33.8260742452 109.8694242612 9.6945176070
33.1037126508 109.0001344033 11.9601801726
32.8340185543 109.3265530238 12.2810379348
32.1866863085 109.1606128127 13.8020934301
32.6138551287 108.1903223394 13.6296834596
33.2485500005 108.4357891406 12.1275217815
33.8625690833 108.1514650860 11.1037893081
34.3139472164 107.7151135584 10.5968822807
34.6273828189 107.1453846304 10.5015197691
34.0051713111 108.8230396654 10.2109715589
34.9819209221 108.6957198166 8.3306944031
33.9566244793 107.4788256467 11.4845606267
40.0289147390 102.9227549333 7.1021324446
40.4156016846 102.0655021143 7.7913997971
45.7185866817 100.2367610867 5.2684046559
45.8297815666 100.6221655242 4.4445126783
44.1163375422 100.3067627893 6.7175601982
44.6736760485 101.5343175997 4.0894293980
44.3641666537 101.5044532158 4.4867658352
44.1526969648 105.2810116604 -1.7391952605
45.8373098680 105.4629528916 -4.2192958191
45.6819358658 105.8126253457 -4.5835964881
45.3587138629 104.6306531830 -2.2159452372
45.8321486314 104.5042449178 -2.6071010229
44.1055604212 104.8963421429 -1.0520557439
44.8700062196 104.4862812579 -1.3465679469
36.2136782294 103.1270803022 11.4321176418
28.7906041803 97.1241646639 16.7322661345
21.3402792063 99.5369402713 28.2798431124
21.3234455640 100.1728115754 28.6851817609
22.3195492172 100.5808716029 28.1020346883
22.8242801511 100.3486022672 27.4312530562
22.5199323595 99.6410335373 27.1805389128
21.1157968783 98.3041989085 27.6804548869
18.5160202998 98.5606856921 29.5183857156
18.8749337006 97.3940714295 29.0296759196
13.3965244255 88.5446437554 27.9612384597
13.1667481018 89.8270497980 28.6958989601
12.7203922855 89.1203852418 28.1966767592
11.6538256396 92.3101526548 27.3708845624
12.3892320112 92.0864363351 28.3045107035
12.6137877014 91.9525557954 28.5292660069
11.9620192872 91.2540848827 28.0694691738
19.3552412046 90.6691969356 25.0242627673
19.0320762053 90.8807419043 25.7441008942
18.4053273304 90.0877747172 25.9664856608
20.0342626052 93.0800208031 25.8161998272
20.7863334310 93.5678378132 24.9908011292
19.6080656899 93.1482470043 26.4284272663
47.5797543256 104.6826270889 -5.0950232170
47.7143123732 104.1593080284 -4.3490380962
54.4317341997 106.3415177161 -12.1095455218
53.5553592642 106.8619248011 -12.8226064793
54.4427462753 107.6178317166 -13.4798828007
53.5197450242 107.7872453037 -13.7834510157
52.2538073040 108.8150153182 -14.3993396750
52.7622163158 107.8099034598 -13.7093258072
53.2072284869 108.4917306318 -14.3608794036
51.2605276014 105.0155466197 -9.3752211643
51.0209287264 106.9877070955 -12.0114917781
51.1736011553 106.4230997848 -11.3667800402
52.6772953390 106.6316388875 -12.3838492671
49.5023135928 105.2166733260 -8.1454070014
50.4925382140 105.5715538886 -9.6116046827
50.4542031433 105.3754852825 -9.2781947419
50.7556757454 104.5742540968 -8.2431756460
49.1067552695 101.8892210143 -1.6339374219
49.4557132089 101.2886618304 -0.7712283435
50.4924562212 101.4887443743 -2.1387434586
50.6781118308 101.9918119441 -3.3433830851
40.3339789535 99.7168066695 10.5122242489
37.3230064141 99.4441508198 12.3072752741
38.4200744330 98.2913418673 12.1909476106
39.9943014625 98.8803933875 11.3688308240
39.2297950608 99.9888741910 10.9645847518
40.6003076087 92.4484322905 14.0475821037
39.3801365755 92.4396699829 12.8140166205
39.6193924982 93.7232811431 13.0592638781
38.9099196200 92.6404549015 12.4280112635
38.2303595888 93.9713719378 12.1077701210
37.0482923496 93.9838932331 11.3617072811
34.7577841789 94.4156422965 10.6567965297
34.9753716953 95.2476892341 11.4037531340
35.7597642941 95.9086745878 11.9655129020
35.9769578364 94.0889165010 10.8422257325
36.0399566410 93.1019434242 10.2098652450
35.9762428452 93.1422160594 10.1938666699
36.4566303322 94.8556944922 11.5163177679
28.8748560818 103.7355513927 21.8635913479
28.8846444022 102.3414366093 21.3593868850
28.1212361218 100.2158497929 20.8728739887
28.4772011316 100.7589266158 20.8892400139
28.0215830578 101.0951950300 21.7292823678
30.1954675939 100.5641872440 18.6196343628
31.1795160721 100.4603842123 17.4549433562
29.8144618195 103.1655671728 20.3532860066
29.9897361883 103.4469588746 20.1247743398
29.3341935990 102.6150812558 20.8325186734
30.3171657256 103.3705362072 19.5974409492
31.2469297711 104.2079049665 18.1673816514
31.0750410898 104.6643817522 18.3843367433
31.3563129672 103.6133275679 18.1005929007
32.9945300883 103.6901841752 15.5858621485
32.8861760039 102.2551623701 15.9939744054
15.2083209219 71.1929455374 4.4816663534
15.9473703493 71.4377395897 3.3218488694
15.0465688078 72.4470607043 4.3544758099
14.1247846200 66.0808940556 12.8487959406
14.2621533892 66.7220770661 11.4330698872
14.8167754489 67.6687198467 8.8964280764
14.4235372837 67.2971436692 10.1526855778
5.0433987662 67.7067962508 21.9824257352
5.7890238513 68.0967742799 20.6882244094
5.3208658644 68.5064789008 20.5173702277
4.1067533054 68.7617873213 21.1488194293
7.7596762761 67.4751144312 19.5068652071
7.0377898903 67.1518751507 20.8911321674
7.2197514597 66.5870185372 21.6446126503
6.9203268493 66.2302004647 22.5692455798
6.0098410245 66.2368800078 23.4519682263
6.6198159384 67.6356648332 20.5588355006
6.2142983904 67.2998148145 21.5237257453
2.9103364110 71.8456623625 17.8944061541
1.5094420384 71.5241093831 18.5828420051
1.7323120577 70.6157345280 19.7153606381
2.7770525032 70.6524941007 19.3526861078
12.7324913196 72.5287992965 7.3625246845
12.3613564184 73.6725429990 7.7936312849
12.7048384009 73.2555343257 7.3307168128
8.9066224627 73.9623599739 11.6910262014
4.8817709644 67.1098406265 23.0185611789
4.9887398122 66.3238142909 24.1569799757
3.9051655212 66.4907823152 24.5861714529
3.1469538913 66.5718922596 24.8122230853
3.9210289316 67.3106502240 23.3905278667
2.0062131898 68.6132876468 22.3701863226
3.1588173347 68.2585972917 22.4268017758
3.6598127622 68.1809072255 22.2575702551
2.8616505808 67.5953317363 23.4943927595
7.9294091797 59.5487397408 31.9699492939
6.1512552781 59.9207183644 31.9016926303
6.4644891562 58.7971309498 32.6415998436
10.0018323666 58.8095306573 31.8739239145
8.5406473789 59.6754790193 31.6210037375
9.1610540015 59.7724114908 31.1672075861
9.4376521004 58.9295781059 32.0507104830
7.8108974180 58.3246926571 33.0737687153
8.1727378008 58.8140133967 32.6221106726
4.5948779717 59.8529880483 31.5766192593
3.0227815861 59.2253256824 30.7554191515
3.6496509529 58.0232717133 31.1730743067
4.8901035082 58.4351904234 32.1845417075
5.8496047166 57.2932055056 32.8644265922
5.3603676033 58.3552533610 32.3924306006
4.2981143791 57.5286591210 31.6168956842
4.6545696627 56.1538823210 31.4682125044
3.7739666293 56.2686618820 30.4395987689
3.1896331057 57.5620788925 30.5113107194
6.6468482030 52.6461041523 30.3568954005
6.4622181158 52.8192923778 30.3937257688
5.3962425234 54.2766197325 30.8069589440
6.6456003562 54.4018511294 32.2916179557
6.1133537238 53.2309633398 30.5185273368
6.9710783078 53.0408375153 31.3501907167
5.8395457897 53.0937168987 29.9753661001
6.3970786797 56.1574299920 33.0674966619
6.3146986599 55.5562826640 32.7270927108
23.5089026439 108.7675302777 29.7722262693
22.4981304133 108.7179305341 30.8391076545
20.4389161884 108.2359026734 32.2927669288
20.0128384929 107.1711689899 32.4485456301
21.9439007514 108.6977177488 31.3366956873
24.8041618205 104.6635101429 27.9339648441
26.4925816952 107.8245004310 25.7550738764
27.6049900524 109.5285444640 23.0896485426
27.4640243155 109.8487345898 23.1948954761
26.9246909714 109.6354033486 24.3223740699
26.5666824550 108.4622201225 25.4268665235
26.8374437573 108.9334143697 24.8095782911
27.5023549662 108.7549760993 23.6747867242
28.3267298527 108.5812057238 22.1718646039
28.7615550806 108.0772482162 21.5723407423
27.3905404176 107.6828891204 24.2332735040
30.5783223748 107.3160531204 18.3265471037
30.4396223202 107.7664023558 18.3735060178
30.7473799769 106.4924176686 18.4081721110
30.8690165962 106.0974960028 18.3478049663
30.1508221477 104.7817968597 19.9339185935
29.6839757929 104.4517285190 20.6740826075
29.2997283448 105.4816951088 21.3021823806
29.6440417698 105.6560659250 20.6763499030
30.5143198840 105.5429324899 19.1188859929
18.9582356262 106.5913831554 32.5085050387
18.3095456327 107.0929465762 32.5433549225
2.8086745227 92.7243035887 5.7635552511
2.5986294577 92.4786902539 5.5349348620
2.2779678477 92.2703231768 4.9506796860
10.6779468647 90.5951523791 26.6477413956
10.4793182360 91.7030331436 26.0297224696
10.9668685858 91.3191602308 26.8971041750
8.3897897391 97.5079949755 16.8062026600
8.3225868327 97.6874630884 16.5018195998
8.3485627850 96.5129408449 17.4558830060
8.4556217854 96.2488985506 17.9624045007
8.4556852489 95.3827805787 18.7319087852
8.9166081581 95.2158911956 20.0968934298
8.4445141192 94.7988221333 19.2972621091
8.5419799488 94.0043539158 20.3293084306
12.5237547091 93.9615096102 27.7475995872
11.2418493826 93.0361560727 26.5096125136
11.5762069502 93.8894743471 26.5151602299
9.6049812908 94.2071942818 22.5907636887
9.8988218981 94.5324053458 22.9807803647
9.6628617087 93.0546744995 23.7004658499
10.5244448881 93.2380637732 25.1667838091
10.8791026769 93.2533034309 25.7943845021
4.4400530276 95.0092366118 7.3110514803
4.3963045378 95.4572851344 6.6246141351
4.0778079554 95.9749644150 4.9426355642
5.4731023076 95.6102368333 9.8207819610
5.5044815948 95.1507844175 10.4709098925
7.0013546852 90.9720471407 19.7185685052
7.7230995726 90.3703587689 21.7165856882
6.6809034575 90.0132176483 19.8201335490
6.0415970306 90.3209913131 18.0798638731
6.3744696043 91.4608494734 17.6287656835
6.6890034174 91.5709241268 18.3005945959
7.2113376501 91.6384157188 19.5405226897
7.4761851684 91.2173831297 20.5630812433
16.7477176929 81.2292010220 13.6472770223
16.8470405639 81.9391182591 15.0398022399
17.0768821803 77.3542387130 5.8769121894
16.9144311930 77.4489719627 6.2161110528
16.3854328917 77.5569534953 6.9782138434
14.3348244481 78.2835466958 10.2525579261
14.4944061199 78.7800977972 10.9714513657
26.1029391908 87.1829902664 8.0746719642
26.9955936738 86.9055941569 6.4053598320
26.0950838896 86.4004726137 7.2300956339
25.3232845399 86.7165374110 8.8874193044
21.5799705028 87.9893790487 17.9622853503
21.5674185227 87.4888754113 17.3104527833
21.2837987798 88.4954160218 19.1904594119
21.8267566727 88.4508734941 18.0306165983
21.8966204069 90.4630089956 20.1914395009
21.0023622632 90.5396002489 22.0381360046
21.0724931673 89.1231506140 20.3821015004
21.8420497445 89.5687824752 19.3276963620
25.9093666151 88.4400039300 9.8266400242
25.5327035587 87.8270853705 9.8181790474
25.2533263872 87.0262324934 9.3831171141
22.0727800244 87.8134784862 16.7217412448
22.8443901363 87.6447303685 14.8954567296
22.2659653675 88.0803517653 16.6660641633
22.8849343715 88.9052376644 16.3862392657
24.3591574623 90.2544150924 14.9317761833
24.0282415302 90.9128628009 16.3479069837
24.6882957310 89.5436643827 13.4323826535
14.3913620100 88.3395867592 27.7605075687
17.0439492564 91.0533972806 28.2640948044
17.8992733764 91.8845812265 27.8771944466
9.5588921918 103.7419750700 20.1061952381
8.1827825699 102.1849740967 15.7867201102
8.0891601272 102.7965705263 15.8978097066
8.9561307205 102.4835370961 17.9507731088
7.2757504498 102.8566400238 13.7727395136
7.6779078023 102.1560861659 14.4018028667
7.5420676429 103.3249933546 14.8784110479
7.8382510775 103.8710500066 16.0676049638
8.3927547502 103.1682673914 16.8874384196
8.2201686946 103.7949073073 16.9401209231
6.4608782628 104.9363761124 13.8299917493
6.9363267151 104.1652154705 14.1007053420
7.4055693642 104.5264993793 15.6754078080
7.6978252796 104.6914537003 16.5250074357
2.0472828288 103.0474617266 -0.1045433571
2.3454219363 103.2399340564 0.9856663730
2.1506629522 104.6693625714 3.2576778500
2.7286605196 104.6939353182 4.6229753485
12.9047923324 99.6425111440 26.1008540769
12.3528521301 99.4079638639 25.1747070909
15.5594928645 104.3056306841 30.2888117198
14.4326783024 105.6909024576 29.6345914071
14.6002053328 104.5728453204 29.3922438865
19.2340379689 101.5077858411 30.5123019410
19.1692665430 102.7485216871 31.1051954503
20.1258980612 101.9043615136 30.4359532215
21.2739671476 101.0068812749 29.2569210873
19.4498633999 98.7103836613 29.1991999244
20.5250395762 98.5130014386 28.3016196969
20.0347920481 99.7851036783 29.3857216288
19.3898911574 99.9122712063 29.7343394239
16.8039611643 93.9592801958 29.3708670932
17.1966964671 93.2997980888 29.0074664931
17.2476294635 94.6606788815 29.2686059561
19.0712581491 106.1239144823 32.4019594842
19.0268192891 105.7621563608 32.3064007105
20.7098131524 105.9741189091 31.9482321173
11.5477777009 104.8090022197 24.8691177368
11.8038226390 104.0205225767 24.9344647825
15.7528871139 108.3253813541 31.5323116765
15.4741683425 105.9494281463 30.7891555029
10.9535448373 109.9566522508 26.6299650497
6.8731700665 108.6890662844 19.6061220810
6.9498451385 109.6731616163 20.8177290968
6.1235124294 109.8401124499 19.8463695060
5.7186594549 109.1278562091 18.3674447322
5.7132641937 109.4179694696 18.7623193082
12.4003182844 108.2756989822 27.9693602054
12.0045348522 107.6821320602 27.2032451907
5.4552540829 107.1320578236 14.8763284554
5.9366074761 107.1307446377 15.8050659598
5.5406952691 108.9329693847 17.7958450771
5.9104958976 108.0527237054 17.1194202209
4.8496906579 108.3936992401 15.8696301163
4.4867521404 108.0968273823 14.7588789348
4.4688355404 106.7909598319 12.3831394421
4.6930922109 106.2209348523 11.8296069191
4.3351273140 107.4912800920 13.3474550068
4.7950696705 107.4504347329 14.1276836155
3.8993749338 106.0097889783 9.7329582965
3.3497296774 106.3839005506 9.3115917324
3.0827648064 107.9681849812 12.1927716515
3.0755806032 107.2869403527 10.7315059842
2.1806252923 106.6249618939 7.6729193121
2.9443341078 106.4653647128 8.7358693998
1.1298195021 106.5680530236 5.6110325834
1.9413261940 106.0560291753 5.8577066908
1.8003967308 106.5973706402 6.8646663061
1.3610579134 107.1946265043 7.6193118891
1.7651788361 107.5973155512 9.2650049899
2.3516133169 107.9275093239 10.9384305235
2.9776696104 107.2296233391 10.4283712317
5.7675180848 99.9833511469 8.1160001188
5.6943650293 99.3112999381 7.9402928360
5.4186419091 100.2134997069 7.1040723325
5.3513518843 100.6014836277 7.0197174038
5.7705670768 100.4491486768 8.2476804904
2.9238238019 96.9791190749 0.1680910149
2.7831875877 96.7360652192 -0.0349897230
2.4625819550 97.2224341188 -1.4828884488
2.9374796277 97.4031586838 -0.0835171232
2.9431305919 97.3435346106 -0.0246861687
5.7128921310 96.2888761008 9.8499709767
5.5248859543 96.7023948878 8.8538701353
6.2670473873 96.8405081400 11.0405383732
6.1797662806 96.7012798165 10.9045176526
6.1784167180 96.2147172289 11.3681916830
6.8499406651 97.5404188805 12.3123269104
6.6918911947 97.9136966673 11.5610587325
5.3825504433 97.3754105930 7.8361041089
5.4039386813 97.9497595329 7.4942605272
6.9607266146 86.5272526298 21.4715768949
6.4659004888 86.1520026948 20.6851988121
5.0085066390 86.1327300455 18.4453690334
13.6339729707 83.3247541429 20.5849756766
13.0134290414 83.6861124051 21.5408917938
12.4287309206 83.7276409598 21.7389405972
12.1519699614 82.5248867565 19.6719961182
12.8246306434 82.6389718543 19.6496564843
13.8097950666 82.6582847079 19.1767146368
13.0150476245 82.8402235259 19.9576952483
12.7313272086 80.9463589290 16.4034746257
12.4896524237 79.6479284475 14.1501184230
12.2719905057 79.2087074089 13.5231686061
8.6223243362 88.4910194908 24.0637975111
8.3587907428 89.2138861052 23.4923795828
9.1044720610 89.0867452897 24.7549513640
9.4536420761 89.7675191506 25.1383574294
9.7254656236 88.9105569373 25.5821551203
12.9676943032 88.4329891155 27.8738815818
12.3141996102 87.1028077890 26.5522736728
11.6020308790 88.0654859712 27.0450302610
11.8827106425 85.9171276355 25.1350154726
3.2021307310 74.9884711722 15.2674781802
4.9978668275 74.3370924717 14.9442219358
4.3351052294 75.4064875779 14.9148005459
5.9092411941 76.7371391888 14.4122116972
5.2790662028 75.0336665225 14.5499744085
5.6993232249 74.1989089211 14.5367092611
6.1184752920 74.0771452697 14.2601207768
1.3511730960 73.2795672542 16.6292524928
2.9896752340 74.5605861255 15.5647917316
2.7502606368 75.1182460600 15.2500023587
1.9862631179 75.4251827528 15.0516998565
1.3607296490 74.4857235565 15.5754103120
6.3054261016 72.5819424082 14.8664662339
6.6685443233 73.1911747009 14.1693904049
8.9051887734 79.2963597002 15.3627077923
7.0904026214 79.3685460564 15.8498142836
7.0023185129 80.3739841880 16.8370573355
8.9985072191 80.4964305434 16.9606012973
8.3483224375 80.8313975014 17.4459719576
10.8081044769 77.8172031399 12.4394375552
11.7008766605 77.3116821296 11.1256355370
12.5249893326 75.3205628876 8.3182881630
12.8582147679 76.7410923472 9.3893455967
12.8731247389 76.9971847757 9.6571717542
4.5601182070 39.7119390685 -8.4215794419
4.2126773952 39.5735149047 -9.4933845912
4.9076590354 40.5078562010 -5.5183535111
4.3081001936 40.7527516145 -6.0852804263
4.5680394012 40.8422136231 -5.2884008911
3.8591981188 39.1472934497 -11.2751320707
3.7036003592 39.8320425942 -9.8153126661
4.3428170928 30.8496701741 -19.3196377529
4.4737048345 31.1229738699 -19.2471439901
3.2298973069 31.9089335990 -20.7893359097
3.0213973119 30.3331920108 -20.0465807145
1.3010402642 32.2637989730 -21.9731910040
2.4329033967 33.0176935076 -21.5483411810
2.4002181797 34.8566836167 -20.7519717961
1.8949293490 34.5568688173 -21.4600037664
1.5118545624 33.0951273669 -22.1008979099
6.5940857326 33.8568289260 -14.8050409121
6.9439332637 33.1199115485 -14.7061870834
6.7511835630 32.0867325532 -15.6600040986
5.6035972181 32.2670796895 -17.6399970395
5.5029974710 32.8618239734 -17.6150389468
5.3465261943 33.4124135497 -17.5954212809
5.8065543687 33.7063058444 -16.5374925157
5.6566818556 47.5552439889 17.5931746477
5.0975959942 47.1100129288 15.1734780815
3.6983551227 44.5576124726 4.2959264415
3.9259434877 44.4101672928 4.3087734697
3.1284295070 44.5991699914 3.2087291921
8.0229627284 46.3397717996 18.5791774178
8.4557813113 46.0902839668 18.6045682031
5.6555886628 42.6116661199 2.3817910980
5.6432185842 42.3181426259 1.4478619981
5.0768984540 42.1065696811 -0.4514552488
6.8226760389 42.8555427819 5.6951667616
6.9388556120 42.4069401561 4.5835322109
6.3950189707 42.4125771000 3.4049268553
3.1146237185 25.7603070386 -13.0826580345
3.8116265830 25.4784585494 -12.6326114355
3.2861226677 26.2985042200 -14.1153990362
2.1870477573 26.2999376371 -13.8385430880
2.3889513361 26.6390892259 -14.6334793048
2.6953755895 25.9633206669 -13.3435744523
2.4709349155 25.1980802115 -11.5522237706
1.5998193223 24.9481279884 -10.3754111537
1.0669989302 24.0191725307 -7.5835907360
2.6109495286 24.1270785992 -9.2098326427
2.9871325822 24.3649306459 -10.0008426139
1.2507936163 25.0896000113 -10.4124050333
1.5639199978 25.5959943685 -11.8840867599
6.1485412048 20.9777976485 -3.6856601036
5.1609315925 20.5606204123 -2.3856601128
5.5584296927 20.0772715892 -1.4860628430
6.9155167571 21.7550175394 -5.3530228918
6.3729905651 21.7363798739 -5.2659191739
5.4258164214 21.0804407719 -3.6662014324
4.3451562367 23.9317605696 -9.5268786737
4.5392764093 23.2235554697 -8.0375867494
4.9728285929 22.6743785726 -7.0118315111
4.2713634770 22.0586542503 -5.3626866467
3.4216870643 22.6094085072 -6.1287486043
3.7156445708 22.5037655619 -6.0664121821
3.5384878585 23.7591084642 -8.8857103402
3.1905415974 23.3552464528 -7.7761025391
3.4391238181 28.0781286549 -17.2046278966
3.4947555011 29.4613668060 -18.8708208347
